6.20076 25.291 0.765784
5.94717 26.0745 0.372818
6.0302 25.4024 0.474287
4.7944 25.2732 0.534288
5.94859 26.0628 0.330447
3.37998 26.971 0.668137
3.1873 27.2515 0.71131
3.28911 26.8511 0.590784
3.24398 27.6159 0.670475
3.42425 27.076 0.65432
4.76931 27.1273 0.522784
4.37521 25.4896 0.59032
6.24945 26.0211 0.812461
6.22096 25.1198 0.820447
6.19478 24.6676 0.815926
4.78662 25.4063 0.612915
4.83065 25.8437 0.625976
4.93658 25.1144 0.562912
4.33384 25.3025 0.594693
5.99467 25.3327 0.543735
5.98141 26.1804 0.0526962
6.05228 27.5751 0.0925534
4.99086 25.5555 0.625961
4.4106 25.547 0.578387
4.9964 25.3259 0.562948
5.08738 25.2438 0.553966
5.95615 25.8567 0.332722
6.47743 27.3885 0.788096
3.20311 26.7525 0.682779
6.59008 25.6971 0.792468
5.13565 26.3701 0.152578
4.8298 25.5528 0.587213
8.29932 27.2273 0.586274
4.79089 25.3214 0.619443
4.78017 25.2732 0.591832
5.14071 26.9967 0.0619888
6.00902 24.8322 0.771922
6.11446 24.7221 0.795455
4.41039 25.474 0.623561
3.20698 27.06 0.762093
6.04177 25.3468 0.751374
4.66446 27.598 0.511313
8.49621 27.4469 0.618852
6.21423 25.8605 0.775768
5.99765 25.0635 0.751709
5.93251 28.307 0.0165747
5.63636 27.6635 0.0699746
5.99849 25.409 0.624302
4.82259 25.2981 0.56374
5.95408 25.8778 0.426671
3.42665 27.3513 0.57974
4.54206 26.8719 0.533123
6.49124 27.0332 0.76455
6.18967 26.3055 0.79441
6.54122 25.9012 0.799418
6.46385 25.9656 0.822789
8.28773 27.0341 0.507702
6.45652 25.409 0.800674
3.2821 26.831 0.650084
4.66416 25.7856 0.621677
4.58178 25.3205 0.607989
5.99319 25.4371 0.547786
6.28739 25.6494 0.806596
8.17292 27.0682 0.477295
4.58262 25.9881 0.626803
5.05059 26.0854 0.545041
6.21035 25.2404 0.801139
4.96201 25.5376 0.568574
4.69098 28.7033 0.830671
3.22292 27.3997 0.717047
3.4581 27.3035 0.459988
3.39078 27.7204 0.589141
6.39778 26.1905 0.814712
4.60447 25.7144 0.62824
4.84395 27.4743 0.0563538
6.21312 25.4948 0.749198
5.67673 26.5009 0.113792
5.81235 26.4377 0.116383
5.8259 26.3471 0.0746126
6.37051 25.6995 0.78552
5.95952 25.7842 0.619805
3.32828 27.041 0.656199
3.31073 27.0132 0.398685
6.08457 27.4642 0.716366
4.92831 25.5098 0.571323
6.00984 27.8447 0.191038
6.7599 26.6847 0.761372
5.86245 28.135 0.00431551
4.79905 25.6803 0.514345
5.08495 25.5732 0.53838
5.98116 25.4967 0.569071
6.07826 26.6474 0.755988
6.02942 27.0172 0.537208
6.00152 26.1147 0.67848
6.46416 25.7265 0.791776
6.35637 25.9724 0.810624
6.24902 25.7342 0.766935
5.94444 27.845 0.321435
4.94418 26.1657 0.574381
8.09577 27.2337 0.543637
5.09245 27.5178 0.387621
4.66356 25.5279 0.622706
4.35121 28.5827 1.06717
5.95522 27.9187 0.597297
4.9784 28.8892 0.236244
6.22184 26.8731 0.772426
6.27967 25.9822 0.80941
6.0576 25.6263 0.769808
7.99691 27.0973 0.503055
4.8432 25.716 0.59293
5.06508 27.1293 0.0803823
4.6864 27.0609 0.556274
4.75236 27.7492 0.45257
4.75397 27.1726 0.513276
3.32387 28.4908 0.547451
5.0024 27.3867 0.330576
5.07309 27.7125 0.172563
4.78861 25.6293 0.626227
5.07227 26.2374 0.405927
6.70468 25.9498 0.796174
6.5475 25.8152 0.813023
5.98067 25.3379 0.752652
3.38512 27.1076 0.422686
4.61921 26.0765 0.605955
4.77839 27.0679 0.470667
6.27718 25.3216 0.816983
4.30509 26.31 0.565679
5.06939 25.7724 0.558172
5.95718 26.1145 0.362971
5.98969 25.7058 0.566343
6.45753 27.3183 0.798567
4.89824 26.9467 0.472845
4.62152 27.0344 0.521119
6.29882 26.2029 0.806727
6.17801 28.4605 0.691785
4.896 27.1258 0.45404
5.06624 26.0313 0.564443
5.98531 26.6391 0.708862
5.02694 27.8723 0.409075
6.27065 25.3768 0.82183
4.94251 25.9855 0.564779
5.01673 25.952 0.559208
5.9804 25.9978 0.646874
3.34532 27.3007 0.234023
4.75711 26.0811 0.590965
4.83765 25.9861 0.606507
4.96231 26.2609 0.560073
5.16599 27.6855 0.0662443
6.01202 25.4594 0.77006
6.26411 25.6345 0.790858
4.49083 28.7784 1.14322
3.47026 27.0877 0.714721
6.57033 25.938 0.807461
6.28128 25.8441 0.786705
8.17329 27.4097 0.601946
6.19741 25.8138 0.78842
4.47118 26.2674 0.613563
5.95405 27.8858 0.239545
6.00716 25.6453 0.732857
5.99 26.718 0.734487
3.27516 27.3301 0.729162
4.91821 25.8954 0.572032
4.46438 27.0054 0.540027
4.21767 29.1085 0.341408
5.82428 27.5875 0.0227424
6.51537 25.9056 0.803882
5.0408 27.9724 0.270591
6.34277 26.2231 0.81318
4.82056 25.804 0.630054
6.03609 27.5081 0.219842
5.9754 26.6845 0.245773
4.53924 28.6516 0.788902
3.39816 27.5473 0.578188
6.23729 25.8387 0.785731
4.53452 27.4342 0.542879
4.12551 28.6874 0.37267
6.25877 26.2612 0.792482
4.97017 26.0162 0.572516
6.25304 25.9342 0.793156
8.0698 27.7282 0.509645
4.41877 26.4869 0.587064
5.03172 26.2728 0.540849
6.36236 25.8574 0.797332
6.36087 25.7814 0.782343
6.20776 25.6522 0.782869
5.64108 27.8935 0.0264663
6.00635 26.9408 0.551113
6.03077 27.0693 0.429471
4.69637 25.793 0.630014
6.39931 25.7536 0.810546
4.7774 25.8176 0.601291
5.00095 26.9795 0.112575
6.25498 28.1708 0.712574
6.30354 27.9857 0.748818
3.48118 27.2475 0.46054
5.18593 27.3463 0.0932297
8.10715 27.6809 0.545846
8.21574 27.6942 0.556295
5.98179 25.9725 0.708708
4.88458 27.4299 0.442107
5.55143 27.3665 0.0640207
5.17072 28.1798 0.0783731
6.03321 27.6239 0.480693
5.9572 25.9785 0.69076
5.88229 27.7435 0.0175499
4.87091 28.9485 2.83102
3.34412 27.9761 0.609719
4.43998 28.8203 1.05734
3.39239 27.9749 0.530784
6.05923 27.5713 0.680433
6.08344 27.4508 0.725859
5.97517 27.1166 0.66342
6.27859 26.9125 0.758562
6.20068 26.5248 0.790711
6.0404 27.445 0.143617
6.36895 25.9134 0.810023
4.71454 28.8704 2.82341
5.88229 29.3203 0.443127
6.11608 26.7249 0.770006
6.01041 29.4214 0.287449
6.06382 27.3333 0.0975841
4.97578 26.9582 0.175983
5.5964 27.0679 0.078506
4.51378 28.6777 2.8402
4.66408 28.8369 1.27234
4.60887 28.8618 1.17059
3.32343 27.606 0.657109
4.46826 27.434 0.528051
6.31583 27.5011 0.767452
6.52518 26.8054 0.814113
6.91869 26.574 0.780326
6.3502 26.038 0.79904
4.762 27.2064 0.489211
6.01501 26.0004 0.746352
6.24808 25.8264 0.762408
4.84578 27.4488 0.0686391
6.19426 26.0242 0.797025
4.44898 26.8706 0.517417
6.47242 26.6258 0.815079
4.40793 28.8102 1.14508
4.70404 28.8918 0.959894
3.45438 27.3923 0.492966
6.06028 27.508 0.0683447
5.51878 27.7144 0.0521696
5.65171 27.5809 0.0159455
6.24188 26.2785 0.80808
3.18678 27.6326 0.678273
4.63728 27.6337 0.501418
6.05369 26.8373 0.761867
6.21698 25.8576 0.778109
4.95992 27.2765 0.242629
4.69007 27.3888 0.502494
4.9648 26.5676 0.465137
5.01011 26.2869 0.485917
6.11079 26.5157 0.77177
4.28852 27.0617 0.484451
4.41661 29.4712 1.71762
4.45812 29.2975 1.41742
4.51996 27.0132 0.529374
6.34478 26.4972 0.807277
5.9878 27.7445 0.213124
5.01751 27.5038 0.492554
3.38325 27.5772 0.237474
6.02901 26.2137 0.767654
5.97716 26.9324 0.647288
4.38044 28.6373 1.26008
5.88124 29.5447 0.263132
4.48091 29.2416 0.357083
3.41797 27.4076 0.379591
4.25186 26.8706 0.474725
5.79721 29.6522 0.114717
6.44365 26.8278 0.795538
6.06279 26.6687 0.718814
4.64472 27.2652 0.493732
4.90043 27.803 0.367313
6.26692 26.2416 0.792283
5.02677 26.2763 0.541691
6.00704 25.8926 0.761097
6.09875 28.957 2.85073
3.34591 27.9121 0.418211
4.34328 28.0885 0.474803
6.37864 27.3438 0.746739
4.52611 27.262 0.525126
5.13544 27.3511 0.135637
5.98117 26.0898 0.687745
6.4143 27.1976 0.777666
4.60994 28.6689 1.29142
5.19161 27.4003 0.0639469
4.65879 27.1343 0.544825
5.94564 29.5559 0.0351107
6.21206 26.4456 0.77547
4.36042 27.0467 0.512294
5.55276 27.4204 0.042358
5.6297 27.4033 0.0506703
3.96883 29.6905 0.986866
4.67278 28.7864 1.26297
4.67812 27.0482 0.501845
4.80659 27.8022 0.486381
6.39597 27.5813 0.764239
4.77889 27.0687 0.475991
3.24124 28.6079 0.245574
4.61875 27.1482 0.535586
4.67045 26.8803 0.513064
6.25984 26.34 0.76571
4.92637 27.3207 0.279078
6.05614 27.4903 0.131359
4.36297 26.5678 0.564754
4.77808 26.6802 0.503933
4.82248 26.5967 0.492866
4.77992 26.6103 0.498281
5.33884 27.9462 0.00827076
3.36899 27.7483 0.590575
6.45578 28.0728 0.714108
4.29259 27.2685 0.495235
4.84038 27.7575 0.406447
4.89672 27.1741 0.242368
5.92627 27.5292 0.063645
6.06802 27.0494 0.429909
4.54594 28.8521 0.988153
5.98732 29.1708 0.611424
6.10825 26.7725 0.768587
6.2252 27.1059 0.750471
4.31756 27.9117 0.450104
5.81819 29.7198 0.287447
6.1697 27.5516 0.706475
6.76786 26.8111 0.787635
5.9921 26.9078 0.695588
4.55817 28.766 2.70646
4.43312 28.7916 0.977743
3.32349 27.8811 0.643609
4.9997 27.4101 0.324437
5.94722 27.8669 0.408828
4.89556 27.2482 0.495108
4.90259 27.1339 0.395124
5.65838 27.7332 0.0380377
4.8795 28.9463 2.82977
4.34683 29.2221 1.32382
4.44027 26.8862 0.511526
4.38735 27.3184 0.512528
4.84051 26.9843 0.463137
5.98375 26.7872 0.626223
5.10409 27.6408 0.112365
4.42639 29.4107 0.242985
6.3402 27.6063 0.765025
6.06308 27.3158 0.695296
6.14526 26.8017 0.748936
6.27921 27.3802 0.712837
4.65986 26.9541 0.499448
4.74646 27.2186 0.484011
6.42654 26.5166 0.793443
6.28991 26.4279 0.782954
6.00799 26.9243 0.540445
5.949 28.3463 0.00991962
4.48929 28.806 0.37248
5.71377 29.0329 0.688724
6.2175 27.4648 0.70735
6.11488 29.4342 0.393798
6.41312 26.8966 0.77476
4.95973 27.2624 0.469041
4.60332 26.9254 0.519737
4.97696 27.7315 0.418259
5.6435 28.1104 0.0172161
4.61077 28.8564 2.77902
6.09586 27.5009 0.723925
6.26563 26.8846 0.768233
4.5505 27.8143 0.494855
6.07235 26.7773 0.77528
4.2734 26.962 0.449577
4.58645 26.8555 0.509525
4.36229 27.2471 0.515986
3.38064 27.9331 0.227875
4.7562 27.0084 0.479524
6.04401 27.1133 0.415685
4.59605 28.6856 1.06422
4.32191 28.1565 0.461401
4.14926 29.8288 0.433211
6.12531 27.0685 0.753705
6.0075 27.6244 0.602514
4.41198 27.0458 0.523285
5.0582 30.0286 -0.0735344
6.05275 27.4889 0.491513
5.05007 27.9813 0.207292
5.0258 27.8483 0.229871
6.10569 29.0335 2.8864
4.51382 29.0352 0.76006
4.32937 28.7027 1.00267
6.09808 29.7736 0.63688
6.38937 28.2883 0.715904
4.67525 26.9395 0.546534
4.41423 28.2765 0.473834
3.34959 28.297 0.183478
4.47292 27.7568 0.474669
4.36561 27.0402 0.5158
4.59838 27.846 0.476468
6.08116 27.1195 0.7094
6.05315 27.4174 0.588952
4.72394 27.6416 0.458415
4.70961 27.0636 0.501437
5.52337 28.0898 -0.00372889
4.99355 28.7042 0.264139
2.84448 29.1945 0.475126
6.32637 27.4728 0.750246
6.44614 26.8321 0.799057
4.42085 27.3511 0.512827
5.06186 29.3594 0.0678375
5.86641 28.142 0.00829005
6.02504 27.2382 0.591127
6.22267 26.6024 0.767677
4.9601 29.6429 -0.0433788
5.67928 28.4394 -0.0354955
4.28808 29.4191 2.1312
4.55347 28.863 1.29445
4.35014 28.7388 1.26222
4.50363 28.8842 0.73001
6.04378 27.4516 0.718602
6.31097 27.187 0.778529
3.97053 29.6931 0.174486
4.99676 27.7615 0.442241
6.12445 26.6262 0.725168
6.26831 26.6281 0.760391
4.46052 27.0464 0.528019
5.0328 27.8442 0.319591
6.12324 29.6234 0.496867
6.27329 27.4546 0.742738
4.28405 27.0613 0.486288
6.35617 27.2256 0.746608
4.56791 27.4613 0.496032
6.53887 27.0487 0.784904
4.87695 27.277 0.449248
5.42361 28.4741 -0.0626314
5.12319 28.0098 0.0567331
5.98458 26.8731 0.667939
6.00459 27.7711 0.240629
4.53493 28.8485 1.5282
6.21521 27.1395 0.714119
6.05132 29.6986 0.555033
4.76816 27.686 0.46801
5.03902 28.1769 0.451254
6.1639 26.7889 0.776438
3.01501 28.8964 0.216095
4.76369 28.4349 0.39822
6.21903 26.6626 0.767124
4.98578 27.4322 0.383909
5.02989 27.7051 0.232273
6.17426 26.6804 0.740051
4.4191 28.9973 1.30574
4.29029 28.8137 1.19265
5.4812 29.9563 0.368167
4.59819 29.0879 0.792681
4.45836 27.5606 0.51653
6.49751 28.2186 0.69288
6.14825 27.4464 0.680961
5.81191 28.4648 -0.0436075
5.99777 26.9465 0.719521
5.69538 28.8818 0.0073605
5.98825 26.9695 0.668839
6.03205 28.3766 0.613584
6.01018 27.5682 0.675973
4.83286 27.8064 0.438062
6.24047 27.6592 0.723532
6.14081 28.4727 0.353534
6.54705 27.3318 0.777067
5.04116 27.6105 0.363636
6.01858 27.4751 0.548768
4.554 28.831 1.06196
6.50902 27.3626 0.76756
5.00407 27.9777 0.381266
4.97492 27.5148 0.390159
4.89057 28.3434 0.444755
5.51081 30.0465 0.231918
5.90515 30.3571 0.381778
6.01653 27.5028 0.596766
4.96282 27.5966 0.416671
5.12753 28.6485 0.121708
6.07532 26.9897 0.676859
6.1169 29.5901 0.653259
6.12658 29.5474 0.379043
6.0124 29.4338 0.288137
6.13633 27.0783 0.754842
4.8602 27.805 0.366457
3.754 30.188 0.339415
6.31197 27.6639 0.752384
4.52056 29.0488 0.361025
4.34166 28.7747 0.822587
4.64151 27.6307 0.497983
2.93498 29.8564 -0.0831703
4.74496 27.8244 0.437663
3.66361 30.02 0.446008
3.38948 30.1575 0.132336
6.02538 27.3145 0.687573
6.23087 27.5567 0.712723
5.46535 29.6143 0.017566
6.09166 27.5114 0.680749
5.05085 27.8748 0.297556
4.97126 27.8657 0.410147
4.87344 27.575 0.44288
6.26714 27.3558 0.718408
4.29979 29.3259 0.302371
6.33007 27.0816 0.747585
4.68699 27.8304 0.484941
4.19495 27.6379 0.453797
4.41674 27.3624 0.507597
6.03964 27.5021 0.681785
5.3635 29.9318 -0.0388772
6.0405 27.7381 0.709273
6.35956 27.4835 0.730393
6.12415 26.9341 0.743779
4.61394 27.463 0.51457
4.73105 27.6211 0.43804
6.05107 27.494 0.546566
5.78599 29.3039 -0.0356662
5.92706 28.8036 -0.0310272
6.09246 27.8201 0.335069
6.06118 27.1521 0.684136
6.2413 27.0848 0.74116
4.00411 29.8901 0.480935
6.59158 27.9432 0.78647
2.83447 29.9295 -0.0192777
5.88945 29.6573 0.38936
4.3429 27.5962 0.484524
4.45303 27.7928 0.465866
4.33459 27.6976 0.472298
5.7034 28.9863 -0.0258519
6.09444 27.5912 0.699688
5.79346 29.8084 0.483129
6.22518 29.5001 0.374324
6.35807 30.2932 -0.112464
6.16868 27.443 0.711528
6.50848 27.5062 0.774343
6.44691 27.2388 0.762692
4.70886 27.4992 0.481376
4.88546 27.8682 0.474734
5.95647 27.9516 0.38442
6.03825 27.2564 0.614402
5.62958 29.6501 0.000437139
6.04605 27.4962 0.627916
6.07968 26.9494 0.742466
4.14465 30.1985 0.194207
4.40796 28.8734 0.981077
5.79049 30.0722 0.591862
6.48075 27.9975 0.732993
4.72991 27.8371 0.485252
5.95089 27.8703 0.318398
6.42775 27.4435 0.741164
6.56543 27.5384 0.775549
6.08906 27.4538 0.698483
3.92758 30.046 0.344572
3.59858 30.1301 0.314557
6.02488 28.2962 0.624322
5.4401 30.2114 0.0945167
6.36061 27.4066 0.747777
4.74172 27.6817 0.488558
4.87761 27.7176 0.478575
4.45851 27.5044 0.507931
4.9538 30.2709 -0.21688
6.22406 27.4178 0.655113
4.3063 28.8405 1.26884
6.1196 30.3087 0.506561
3.85617 29.9772 0.116442
6.29193 27.4196 0.759583
4.34625 27.7729 0.45705
4.61165 27.8201 0.483777
4.85724 27.7165 0.448229
6.13789 27.1371 0.729876
4.99919 27.8097 0.364348
4.54148 28.8362 1.52865
4.70787 28.7959 0.946596
3.30568 30.0999 0.0135209
6.27773 27.721 0.718574
4.92502 27.8652 0.384997
4.96186 27.7698 0.390567
4.79761 27.6895 0.430161
5.03881 28.0696 0.249496
4.34119 29.2039 0.230128
5.50158 30.1781 0.422755
6.316 27.9839 0.735102
3.37474 30.2738 0.218649
3.22775 29.6166 0.0107631
3.54094 30.0137 0.126714
5.7202 29.717 0.2189
5.8281 29.6666 0.0815885
2.99421 30.2191 -0.162249
5.03761 27.9335 0.338962
5.02124 28.8717 0.00878206
6.08756 27.5472 0.63696
6.01327 27.4668 0.553556
6.28778 27.2666 0.720363
4.84596 27.795 0.359142
4.56373 28.7643 1.026
5.99459 29.8623 0.00842052
6.3933 27.6377 0.775252
3.81215 29.8549 0.013749
6.17739 27.5399 0.666322
6.5958 27.6557 0.773503
4.84052 27.8754 0.437518
4.5258 28.7907 1.06172
3.2601 29.9776 0.312933
3.39234 30.4062 0.338464
4.52027 29.0357 0.612288
6.17019 29.6283 0.608081
4.38655 29.083 0.478375
6.2285 28.12 0.733044
6.10673 29.5861 0.507455
6.59384 28.083 0.779364
6.24521 27.7696 0.727104
6.15001 27.5782 0.700906
6.38355 27.9444 0.731711
6.39887 27.5859 0.755706
4.84158 30.4731 -0.151995
4.75516 29.7872 -0.108947
4.53132 27.6831 0.487362
5.99999 27.8773 0.639666
6.21904 27.3577 0.648862
4.53769 27.7895 0.466441
4.69244 27.8246 0.486409
6.00588 27.5098 0.600568
6.34517 29.9657 -0.0939198
3.86636 29.8756 0.258392
4.32834 30.7633 0.0514904
6.42314 27.635 0.773978
3.73932 29.8102 0.0472313
4.00911 30.6418 -0.00320506
4.29817 30.6008 -0.197384
6.27314 30.0058 0.0349865
6.35558 30.0694 -0.0582153
6.43963 27.5622 0.753238
6.25757 27.4021 0.737397
5.03779 28.3651 0.300892
6.29725 27.4562 0.658871
4.50288 28.8477 1.53303
6.23869 29.6646 0.306704
6.39939 28.1902 0.723019
6.32162 27.7361 0.752317
6.26135 27.7338 0.715995
5.31488 30.2894 0.080141
4.71372 27.7525 0.484247
5.03076 27.9782 0.355686
5.14787 30.5429 -0.172706
6.27436 27.636 0.708066
6.37142 27.7108 0.734766
4.8105 27.8612 0.451919
4.48848 28.788 1.14411
2.73052 29.7567 -0.0258443
3.40717 30.5106 0.360544
6.48665 28.0083 0.732543
4.10556 30.3024 0.00536251
5.6 29.2185 -0.0280291
4.62499 28.8265 1.17647
6.46459 28.2728 0.739187
6.5088 27.9118 0.761515
6.42259 27.9616 0.744228
2.69023 29.9925 -0.0764943
4.83497 30.5739 -0.0925522
6.25149 27.7141 0.744638
5.2643 28.8683 -0.00469623
4.44563 28.7933 0.986746
6.06932 30.4875 0.386631
5.97616 29.4801 0.39026
3.9365 30.593 0.0298963
6.41705 28.2832 0.739844
2.92032 29.8795 -0.0962223
5.92718 29.5221 0.194239
4.66711 28.8299 0.813057
4.52943 28.8049 0.989862
3.90886 30.0537 0.179754
2.75104 29.8497 -0.0317985
4.10749 30.5951 -0.185671
4.85543 29.8061 -0.110837
4.46406 30.5949 -0.0338105
6.1178 27.7645 0.704756
5.87226 29.492 0.281066
4.46321 28.8896 1.30026
6.31617 27.9896 0.734323
5.18141 30.4807 -0.238107
4.26333 30.1031 -0.0927983
5.03113 28.3442 0.353033
5.17686 29.2322 0.0246905
5.01276 28.1777 0.402597
6.03119 28.3843 0.368587
4.37122 28.8048 0.911055
5.7005 29.7267 0.476054
6.32619 28.3049 0.724045
3.3007 29.8155 -0.0517931
2.9968 29.9151 -0.101334
3.52352 29.7948 -0.0682315
4.06051 30.3309 -0.148027
4.65468 28.2394 0.377443
3.89188 29.7943 -0.0341884
5.66324 29.7084 0.616635
6.29447 28.3335 0.697666
5.1483 30.9629 -0.0422773
2.69108 30.4348 -0.240693
4.3605 30.7129 -0.113159
4.30958 30.7222 -0.361833
3.04364 30.1449 -0.106946
4.3953 30.6983 -0.224346
4.67139 30.1854 -0.267429
4.53498 28.8558 1.53419
3.23785 30.3629 0.168741
3.77943 30.1384 0.356106
6.12871 29.4328 0.63863
6.40754 28.1968 0.731069
6.26631 28.1626 0.714121
3.58476 30.0475 0.365178
3.70936 30.3205 0.437739
6.34755 30.2831 -0.0113422
4.47835 30.6014 -0.197079
5.88478 29.7571 -0.0329472
6.18543 29.5819 0.306772
3.29851 30.2364 0.0671521
6.14873 30.8104 0.436455
3.31454 29.9518 -0.054136
3.87524 30.5059 0.102418
6.22319 27.9791 0.727939
4.31843 30.5378 -0.17782
4.55593 28.121 0.478704
5.38955 29.2285 -0.0224096
5.70584 29.6331 0.557941
4.33778 30.6757 0.0236648
4.11831 30.0841 -0.151332
6.54298 30.1995 -0.16814
6.45148 31.4763 0.404116
5.41174 30.8747 0.319406
4.00671 30.9427 -0.0947444
5.79108 29.5309 0.271359
5.83826 29.5874 0.260613
3.67184 29.8261 -0.0628254
3.42192 29.7571 -0.0476279
5.47787 30.2788 0.442197
5.82254 29.6999 0.571437
3.71829 30.0755 0.277925
4.70486 31.0696 0.0215763
4.40266 30.107 -0.192484
4.95137 30.5375 -0.275102
4.62984 28.8216 0.906576
5.89038 29.5424 0.206269
6.41937 28.2891 0.735701
6.37571 30.1396 0.0650737
4.92625 30.4296 -0.315898
6.30079 29.6665 0.00783194
6.44275 29.6525 0.0187518
4.37882 28.7895 1.1774
6.61509 31.7321 0.496004
3.42612 30.2846 0.434965
4.66036 30.534 -0.127241
3.62913 29.902 0.0484233
4.56059 30.3363 -0.213636
5.25774 30.234 -0.172785
4.74921 31.6328 2.13395
4.40771 28.8745 1.05119
4.57626 31.4618 0.160677
4.5011 28.8859 0.733153
3.86014 31.5381 0.0667201
4.52919 30.564 -0.032798
4.04688 30.2136 0.0244397
5.80405 29.6475 0.407255
4.70707 30.4436 -0.16967
6.07788 29.6372 0.16459
4.4459 31.4767 0.0465132
6.14414 31.465 0.311797
5.52968 29.8571 0.282639
6.04855 28.3585 0.631534
5.7753 29.6949 0.338362
5.91595 29.6172 0.362963
6.23568 29.9213 0.31251
6.35706 28.1613 0.729152
6.82791 30.6078 -0.212284
4.49266 28.8132 1.14603
4.63634 28.8091 1.17845
3.76695 31.6143 0.401845
6.22118 28.0981 0.707242
6.40769 30.675 0.467529
3.54487 30.1113 0.353574
6.14333 29.6422 0.511258
4.06908 29.9947 0.150402
4.93586 30.4783 -0.130912
4.59291 30.9879 -0.506157
5.18534 29.7467 0.0101121
5.95842 29.6154 0.0122745
4.81319 29.7157 -0.0694825
4.15933 29.8507 -0.137592
6.03675 28.3161 0.623948
5.6869 29.6608 0.0422765
5.54652 29.406 -0.0145549
4.49712 28.8645 1.53499
6.34521 31.7649 2.36048
6.24844 31.7794 2.35947
4.57519 28.8254 1.28578
4.03208 31.4725 0.320652
3.47431 30.0729 0.380412
6.03978 29.5567 0.250399
5.2789 30.8147 0.0669656
7.13502 30.999 -0.0205436
4.85233 30.3059 -0.193151
4.20728 29.8664 -0.127117
5.82444 29.741 0.169457
6.38655 29.6817 0.00290432
4.29375 30.149 -0.1274
4.39938 31.809 2.25406
4.52335 28.8526 1.28888
4.53249 28.7727 1.12031
4.53871 28.8013 0.940128
6.56331 31.6572 0.417873
6.35201 28.2009 0.734248
4.46489 30.1639 -0.284044
4.39297 29.8626 -0.0966425
5.06092 30.5058 -0.248966
5.24238 29.7449 -0.0232719
5.71988 29.7261 0.219502
6.29186 28.1864 0.699866
4.50274 28.913 0.68668
6.22573 31.9721 0.522364
5.58771 30.0281 0.500279
6.11685 30.5848 0.490396
6.7263 31.0194 0.283767
6.316 29.2749 0.554821
6.666 29.5198 0.395375
5.4245 30.1628 0.116748
4.10212 29.9408 0.0287791
4.30538 30.0527 -0.132882
4.26079 29.9275 0.105149
5.49525 29.7912 0.20025
4.24403 30.2905 -0.0718532
6.27069 28.1954 0.712978
6.19617 29.3034 0.0438997
4.66984 31.1084 2.58167
6.0465 29.7319 0.531207
3.82829 30.2653 0.433962
4.01867 31.6651 0.41912
5.74614 29.7385 0.622779
4.09772 29.7992 0.256532
4.7728 31.9439 0.217399
3.95884 30.1069 0.244468
4.45628 30.6338 -0.0457959
5.54973 29.6299 0.0517383
4.68204 30.2971 -0.123923
5.79365 29.6158 0.0571361
5.96925 29.7079 0.0216966
6.0897 28.3298 0.679044
3.78221 31.6391 2.75077
3.82149 31.6599 1.1524
3.83654 30.1892 0.336301
3.88514 31.676 0.41443
6.22264 31.2668 0.537491
5.48681 29.7472 0.268276
4.91039 30.5301 -0.0407871
4.03843 30.1348 0.182143
5.54312 29.8256 0.383599
5.48221 29.8273 0.323292
6.27924 28.287 0.701058
6.39098 28.2872 0.730788
4.1955 29.9589 -0.072476
4.77032 30.0323 -0.177807
5.38262 29.6722 -0.0125057
6.83113 30.562 -0.281679
6.59194 30.1946 -0.170964
5.65027 29.652 0.545576
5.71488 29.8204 0.448804
3.94647 30.1344 0.330302
3.99672 29.882 0.227282
4.41495 30.8575 0.0570947
6.3069 28.2582 0.715542
4.09301 29.819 -0.0356306
4.31357 30.4247 -0.0609409
4.44599 30.3719 -0.278649
6.78497 31.7652 2.39416
4.12995 32.0657 0.276723
3.92988 31.451 0.257052
4.45281 31.6495 0.138085
3.97651 31.2913 -0.0110891
4.0129 29.9088 0.115283
4.07703 29.9183 0.0253465
4.01135 30.8992 -0.3494
5.0733 29.8301 -0.0422079
5.8411 31.6946 2.74596
3.70988 31.7487 1.0686
3.70439 31.778 1.42133
4.03946 31.4208 0.156301
4.35707 31.1608 0.0356946
5.97125 29.4561 0.395713
4.14409 30.5802 -0.10714
6.06391 29.4264 0.566487
5.91282 29.7951 0.0320586
4.75078 30.4128 -0.260531
4.3618 31.3452 0.0728595
6.93296 30.571 -0.248418
5.60244 29.6694 0.152374
7.11572 30.5041 -0.224933
4.10396 31.5485 0.243852
5.15523 31.8671 0.177557
7.12864 30.7896 -0.08021
5.21865 30.7023 -0.116821
4.03656 29.844 0.082831
6.08489 29.599 0.0703244
4.95176 31.0387 0.00540604
6.34169 29.5721 0.0493675
4.26835 30.6048 -0.0161611
4.08107 29.9309 0.0907616
5.86653 29.7067 0.0019346
4.27243 30.9947 0.0942486
3.91743 31.4438 0.454252
7.42278 30.6856 -0.129377
4.5427 31.5244 0.0938588
4.49273 30.8821 0.0681963
6.04239 29.4465 0.205051
4.10634 30.6966 -0.0178669
5.17723 30.3766 -0.120012
5.31475 29.7656 0.0245978
4.45295 30.5749 -0.101279
5.90169 31.682 2.46204
7.58817 31.5382 2.16306
5.21674 31.8267 2.29429
6.76358 31.9408 0.457302
5.73633 30.1189 0.538684
6.97481 31.8322 0.121562
5.03588 31.7644 0.051534
6.09146 31.3791 0.464
5.1444 30.5173 -0.0535913
5.8091 29.6823 0.298284
3.9635 30.7059 0.000458397
4.32373 30.78 0.0739959
7.4619 30.6355 -0.115902
7.62242 30.6597 -0.120309
4.17648 29.9837 0.0812291
4.03729 29.954 0.126642
5.2014 30.4779 -0.0549604
4.74873 30.6406 -0.121187
4.82603 30.5007 -0.219551
5.74224 29.6699 0.1677
5.78392 29.5633 0.25117
7.35716 30.5699 -0.219675
8.02741 30.1355 0.206382
3.77534 31.6349 2.00993
3.75067 31.8429 1.60407
6.33143 31.7968 0.549823
5.45035 29.7727 0.515347
5.33399 32.185 0.0428806
5.8106 29.8939 0.436825
5.06768 31.0709 0.105107
5.91092 29.5826 0.393282
4.68893 31.0947 0.0834404
7.72699 30.5435 -0.014992
4.10461 29.9414 0.171047
5.12674 30.4233 -0.079622
4.44125 30.4328 -0.208593
4.93081 30.4762 -0.124195
5.29436 30.2763 -0.164456
6.73945 30.5433 -0.221844
6.88523 29.7241 0.0291531
6.69446 29.4839 0.0591624
7.38737 31.9064 2.51424
3.72225 31.7221 0.81279
5.63435 31.5137 0.11764
6.88262 32.0331 0.285694
5.75569 29.6273 0.307269
5.75164 29.5826 0.44728
5.42802 29.7569 0.343248
4.23947 30.0979 -0.0774896
4.33234 30.0766 -0.0900709
5.32116 30.291 -0.0551499
7.63788 30.4617 -0.152837
5.80095 29.5517 0.205381
3.93059 31.9414 2.50711
4.81619 32.0473 2.52757
7.26266 31.8301 2.59651
4.71548 31.7752 2.16447
4.22738 32.0367 0.519628
4.32504 31.989 0.449543
4.70713 32.079 0.363024
2.9956 31.665 0.148555
5.49147 29.7605 0.490479
7.83019 30.3302 0.0208411
7.8528 30.4979 -0.0414792
5.70912 29.6346 0.258422
4.14332 30.4739 -0.138949
6.82102 29.6872 0.0010961
5.50655 29.6699 0.0357433
7.10415 31.7141 2.68389
4.05324 31.8039 2.50457
5.05767 31.935 2.52439
8.26086 31.69 0.896101
3.97045 32.0815 0.531754
6.91931 31.9499 0.443702
6.31167 31.4968 0.508664
3.08743 31.6167 0.0860414
7.20158 32.1769 0.129301
6.42079 31.3382 0.426416
6.67844 31.8149 0.20209
4.15155 30.5877 -0.218803
4.52255 29.9466 0.134633
6.24311 29.628 0.288991
4.78523 30.3763 -0.19102
5.76073 29.6264 0.254299
5.53176 29.7443 0.0895071
5.77087 29.6273 0.128162
4.94924 30.3944 -0.256822
7.12311 30.617 -0.224237
7.97775 30.5484 -0.241186
4.63967 30.4441 -0.266376
4.85195 31.5509 2.12201
4.53144 31.8461 0.0975724
4.54158 30.5143 -0.267943
5.8514 29.5215 0.404162
6.30171 29.1923 0.618307
6.07423 29.61 0.181992
5.64267 29.6584 0.133843
4.51184 30.4976 -0.156331
5.25456 31.6814 2.46439
3.66895 31.7283 1.61928
4.85132 31.7638 2.10242
7.52887 31.7271 0.0768265
7.19589 32.1037 0.23101
3.22587 31.4948 0.113353
3.50042 31.7922 0.123664
5.71332 29.6366 0.561858
5.17046 31.8752 0.340251
4.6722 31.969 0.0579821
4.18607 30.8929 0.0651149
6.10904 29.6537 0.377749
7.60254 31.404 0.174429
4.13101 31.1451 0.0989572
6.12446 29.554 0.528354
8.1499 31.2162 0.0660988
5.47647 29.8319 0.240482
7.61112 30.5782 -0.125554
4.25068 30.637 -0.0244379
5.45518 29.8495 0.118525
5.99858 29.4419 0.294273
5.8624 29.6445 0.173875
7.43904 29.7998 0.0469047
7.54161 29.976 0.080358
4.1577 29.9894 -0.0186016
4.11607 32.1269 0.497496
3.84826 30.8005 0.130758
7.06176 30.8486 0.028977
7.50178 30.4286 -0.19046
7.26337 30.4357 -0.272506
4.65804 30.527 -0.178913
6.79164 32.0398 0.448946
5.48344 29.7476 0.547669
6.02964 30.2888 0.580622
8.18384 31.9927 0.382255
4.8824 31.7453 0.486592
5.48804 29.8714 0.296661
5.88521 29.5377 0.347107
3.76333 31.9399 0.557845
6.34781 31.4525 0.425375
6.98291 31.9949 0.260867
4.80623 31.7616 0.24977
6.76859 31.7073 0.228129
7.67078 31.6581 0.100133
4.43391 31.2535 0.0137565
4.56672 30.6389 -0.0870074
4.8738 30.4646 -0.0663133
7.17501 30.5019 -0.177776
4.94591 31.7477 2.1178
5.90895 31.7445 2.48365
7.52101 32.1745 2.60841
6.08588 31.7892 0.496747
5.21894 32.0165 0.506011
3.87837 31.1212 0.095048
2.97939 31.811 0.304955
6.20843 31.8498 0.24205
2.90121 31.9426 0.129668
5.45039 29.7229 0.523147
3.41454 31.2267 0.0842915
4.37734 30.9368 0.139661
4.33862 30.577 -0.091001
4.23519 30.1176 0.0729155
4.28561 30.4962 -0.0890119
7.64296 30.6848 -0.126576
8.0346 30.6548 -0.159902
5.64108 31.7272 2.46871
5.33001 31.9326 2.368
4.56586 31.4571 2.02875
3.77607 31.6387 0.631896
6.03753 32.378 0.0876885
6.02531 29.6472 0.553346
4.05439 31.4174 0.336991
3.39895 31.1027 0.075621
2.89529 31.7661 0.297507
5.23163 31.8005 0.202904
5.89109 29.8897 0.445046
5.64808 29.6743 0.464838
5.11963 30.447 -0.131335
7.02173 30.7188 -0.121705
3.13784 31.8149 2.24884
3.47104 31.9264 2.337
8.1842 31.5698 1.08647
8.15188 31.6801 0.379752
5.08025 31.7985 0.343758
3.5345 31.7362 0.0653801
4.41362 30.5491 0.033721
5.90555 29.7087 0.363111
6.09907 29.5625 0.530058
5.71191 29.5757 0.312193
4.26637 31.6801 2.33261
7.08533 31.9111 2.1636
8.12183 32.0262 2.22794
4.2597 32.0806 0.271369
4.96497 31.9316 0.458711
6.85448 32.1435 0.550591
6.68436 31.9808 0.468648
4.69502 32.1513 0.346701
3.9734 31.435 0.299229
5.64543 29.5188 0.646909
3.94095 30.9375 0.0884102
4.0895 30.9035 0.0661394
5.92759 29.6976 0.387995
8.00712 30.4998 -0.0362302
7.74046 30.4793 -0.0965716
7.15521 32.2562 2.66954
5.63891 29.5134 0.61345
5.8874 29.7535 0.556246
8.36891 31.7903 0.145503
7.84985 32.3679 0.105164
5.14007 30.8738 0.0342235
5.75412 29.624 0.360728
5.749 29.5762 0.491331
7.95975 30.61 -0.209363
4.46283 31.8076 2.20921
4.66132 31.7312 2.2214
4.86668 31.8042 0.386675
4.4487 32.2618 0.254479
8.20143 31.6205 0.88163
8.11573 31.7042 0.885247
6.74701 31.7891 0.115558
7.93317 32.1454 0.259068
7.80666 30.4499 -0.0149629
5.46168 29.8121 0.391732
7.61197 30.5793 -0.125502
7.54679 30.5997 -0.142428
6.528 31.7605 2.26382
4.20101 32.1313 0.508385
6.56697 31.6735 0.421407
5.71076 29.5104 0.530465
7.60947 30.4617 -0.129396
6.33662 31.8086 0.551894
4.61843 31.9843 0.267336
5.72297 32.4711 0.0288377
4.70198 31.8612 0.14568
8.95389 31.6978 0.0898756
6.39555 31.3524 0.336681
5.8989 32.0107 0.147947
5.7059 29.7328 0.495486
5.96535 30.1705 0.291389
7.62463 30.9107 0.0124365
7.70777 30.5517 -0.243193
6.43537 31.4539 0.537669
4.97831 31.654 0.426552
8.31124 31.793 0.71397
4.97941 31.5784 0.36612
6.55682 31.543 0.143801
6.24273 31.5037 0.507601
8.72409 31.4232 0.326397
9.18863 31.4066 0.490838
5.3105 31.9626 0.249008
7.64604 30.4141 -0.240927
6.37809 31.8389 2.38321
8.06854 31.6214 2.6236
8.2166 31.6462 2.57856
8.51728 32.205 2.05565
9.2012 31.272 0.501593
5.4722 32.3455 0.122069
6.90718 31.9407 0.437809
6.38098 31.5792 0.401694
8.69656 31.7619 0.0895519
5.81392 32.0653 0.0838378
6.3105 29.6082 0.586584
9.0105 30.974 0.120169
7.94744 30.385 -0.118713
7.79466 30.5619 -0.0891955
7.66 29.8682 0.0815011
8.26506 31.7147 1.95806
8.03118 31.9824 0.253354
9.00606 31.5179 0.394873
5.82479 31.8932 0.0534821
8.93793 30.6543 0.125619
9.15158 30.6466 0.121103
5.97649 31.9925 0.0745285
8.46352 30.6784 -0.161701
9.15863 30.8845 0.0285873
9.17029 30.8859 -0.366063
8.82099 31.6172 2.77347
7.8314 31.8203 2.30134
8.3672 31.7772 1.07545
9.2087 31.5248 0.546004
9.44826 30.7755 -0.0909768
8.38739 30.4053 0.0350351
9.75913 30.7305 -0.0793234
9.1307 30.5158 -0.17598
6.58519 31.7985 2.47561
7.78705 32.3506 2.74369
8.17405 31.6046 2.71528
8.83984 31.5901 2.44007
8.51841 31.701 2.79739
8.67218 31.7658 2.40574
6.7299 32.061 0.549289
8.58298 30.4805 -0.200391
9.71163 30.566 -0.264133
7.68272 31.4112 2.60773
8.02499 31.6046 2.7703
8.34593 31.7755 1.17816
8.96885 31.3221 0.366315
6.66824 31.7733 0.211899
8.47108 29.6109 0.00982668
8.61257 29.6851 0.0482251
9.37038 30.0814 -0.199136
8.2777 31.645 2.87405
8.09309 31.6324 2.01346
8.31332 31.7188 1.64708
8.12861 31.7122 0.134336
6.88845 31.842 0.379401
7.99349 32.0181 0.34906
8.18622 31.9475 0.189266
9.2708 31.3933 0.319834
8.87358 31.9415 0.421968
7.58853 30.992 0.0939847
10.1361 30.1203 -0.128866
8.4378 30.1834 -0.195948
9.15295 29.6588 0.00962932
7.5506 30.8211 0.0513187
8.6553 31.5976 2.8881
9.35428 31.1275 0.166453
8.06915 31.8324 0.556113
8.33791 31.8209 0.721088
8.46766 31.6662 0.114297
6.88999 32.0653 0.295248
8.88898 30.0023 -0.106415
9.07479 31.2556 0.164966
8.62809 29.4042 0.0168235
7.54844 32.3237 2.62871
9.79327 29.6221 0.0435135
8.4238 29.7082 0.0160908
9.72864 29.4519 0.0919415
9.24372 31.2478 0.154865
9.57361 29.3052 0.09114
9.28833 29.247 0.0614477
10.2606 29.51 0.0790209
7.62422 32.2935 0.0666743
7.02313 31.9297 0.116358
9.60231 29.1986 0.0997789
10.3785 29.9361 0.0139907
9.19359 29.019 0.403788
9.04667 30.1453 -0.191844
8.87615 29.0181 0.110614
8.17351 31.752 2.69467
8.96588 28.886 1.59986
8.26255 31.8743 1.71897
8.94099 28.8231 0.732681
7.97859 32.2378 0.111251
9.03788 30.7201 0.103398
10.1855 29.8924 -0.101281
7.34507 30.9942 0.158049
8.91616 29.7488 -0.0288433
9.27076 30.3067 -0.339723
8.96898 28.9007 0.255187
9.11203 28.9675 0.156973
8.97267 28.9026 0.184024
8.03563 31.9411 2.58154
7.72408 31.7422 2.23142
8.50627 32.185 2.00922
8.86399 31.9209 0.505876
8.87295 28.8592 0.814736
8.16884 32.0812 0.291613
8.1353 32.1439 0.118381
8.48887 31.8103 0.277101
7.01873 31.2822 0.17654
9.1304 31.3568 0.500731
7.36257 30.9127 0.119049
9.6241 28.6773 0.0839323
8.10124 32.2633 0.0825113
8.24887 29.6561 0.00729044
9.73893 30.4801 -0.330482
7.20163 31.7572 2.17588
8.10858 31.6341 2.56239
8.91029 28.8761 1.75283
7.96275 32.1489 0.379066
9.80007 30.6298 -0.0774111
9.16069 28.6664 0.123294
8.59025 30.5561 -0.158249
9.1678 29.5552 0.0468268
8.48948 28.9853 0.103706
9.28991 29.9821 -0.141878
8.07119 31.9211 0.186814
8.5665 32.0821 0.35905
8.94876 31.4625 0.415833
10.5758 28.1898 0.216448
9.18279 31.5348 0.129872
9.74657 28.2375 0.116577
9.65152 28.4395 0.0913047
9.63058 28.2948 0.101919
9.20878 28.3318 0.081935
8.14081 31.6628 0.383107
10.5339 29.6481 0.123979
8.27173 32.0445 0.147937
8.3116 31.7205 0.168556
9.6393 28.1323 0.0929453
9.21391 28.1226 0.0752689
9.96909 28.1102 0.126355
9.45502 28.7904 2.29895
8.88837 28.8272 0.675381
8.97596 32.048 0.414667
10.7519 28.3044 0.428244
9.81475 27.9149 0.351701
9.77238 27.9471 0.226336
8.57854 28.2274 0.377397
9.11128 30.1009 -0.187114
9.12475 31.0601 0.0917998
9.57935 28.9793 0.115942
9.1723 29.4547 0.0413264
8.22177 31.7428 0.703147
9.6272 31.6785 0.528496
10.3426 29.7739 0.0273551
8.72855 31.8653 0.115727
8.1712 31.9047 0.23784
10.1816 30.3209 -0.37852
10.0046 28.3216 0.743639
9.04258 28.7573 0.794106
9.53055 29.7142 -0.000325563
8.88465 28.8556 2.47925
8.78655 32.3962 0.379107
10.0047 27.985 0.763123
9.97518 28.0745 0.241394
10.2279 30.672 -0.188986
10.0008 28.1694 0.696201
8.92877 31.7305 0.474845
8.8458 31.5698 0.457736
8.75139 31.5416 0.342999
9.81896 27.6331 0.636599
8.77215 29.1463 0.103056
9.81837 31.0046 -0.0575524
9.05211 28.4663 0.137775
10.3478 30.2917 -0.153509
9.27142 29.3617 0.0718766
9.21716 30.9151 0.00982958
8.92006 28.8088 1.62402
9.28109 31.3375 0.503633
8.71262 31.6361 0.445211
9.11929 29.0144 0.416216
9.95634 31.7269 0.230644
9.73554 29.2026 0.0795818
9.8679 27.5192 0.763788
9.71462 31.4473 0.148707
9.30283 28.8961 0.186343
9.83448 27.5371 0.531077
9.0637 30.5663 -0.0645665
9.82894 30.5204 -0.208974
9.24597 30.5724 -0.2134
9.90085 31.9152 1.74273
10.4259 27.1954 0.891251
10.1493 27.2819 0.831062
8.74836 31.5076 0.270292
9.35936 30.5221 -0.22883
9.55343 30.748 -0.0597239
9.72023 29.3213 0.0579017
9.45603 29.4668 0.0326868
9.64498 28.0059 0.100701
8.28174 28.1453 0.518052
9.22337 28.2304 0.105931
9.06717 29.8026 -0.080327
8.81347 31.5813 2.15508
8.89808 28.8603 0.81153
8.69491 31.5594 0.238277
9.20042 29.2343 0.0906828
9.03591 29.7145 -0.0166664
9.54181 30.6287 -0.0105164
10.155 28.7292 1.18258
10.0621 26.9759 0.805072
9.66285 27.4139 0.549241
10.1234 27.1014 0.817725
9.79454 27.1766 0.673439
9.05722 31.3848 0.462364
9.20548 29.1718 0.0855403
9.78315 27.2571 0.593063
8.59997 29.1242 0.0746225
10.0452 28.1476 0.235697
9.80518 27.2272 0.504618
9.01383 28.8989 0.17811
9.1005 31.4635 0.153818
8.53987 28.2332 0.388821
8.61112 31.2612 0.0818301
9.1323 28.958 0.159583
10.1608 31.5729 0.148256
9.29572 28.79 0.190852
9.30381 29.6906 -0.0362779
9.6922 31.6886 2.93103
8.86824 28.8043 2.07339
9.43519 31.4016 0.151743
8.83349 27.5548 0.644857
10.1809 28.3607 0.397957
9.66878 28.6751 0.0787722
9.25501 29.5647 0.0259441
9.09222 28.7894 0.156092
8.08477 27.9698 0.355015
9.59847 30.4253 -0.280371
9.32444 31.732 2.80152
9.77705 31.855 2.65243
10.0126 26.7638 0.745774
10.3218 26.6136 0.86346
8.74172 31.4211 0.340493
9.33337 31.4218 0.257883
9.40419 31.5192 0.132116
9.74196 27.9575 0.236155
8.36237 27.7357 0.622408
8.96001 31.4663 0.321708
10.1655 30.582 -0.219214
10.0629 31.8142 0.425349
9.05473 28.1665 0.129153
8.04937 28.1055 0.559454
8.13368 27.8391 0.520711
9.13298 30.6144 0.00475455
9.37818 28.9743 0.169893
9.72012 30.5536 -0.164109
9.61945 28.2988 0.10701
10.2615 30.1419 -0.0303661
9.72751 29.7634 -0.0218908
9.73632 29.7071 -0.0068423
10.1051 27.0348 0.885371
9.93574 28.7302 0.996884
9.07788 31.5751 0.526772
8.90766 31.5498 0.533157
9.82837 27.8008 0.47751
8.3027 27.7941 0.579869
9.28568 31.5481 0.131344
9.05472 31.2244 0.161862
9.82066 29.8856 0.0215931
8.07984 28.0122 0.552125
8.99366 28.7544 0.119566
8.71427 28.1454 0.304734
9.63856 28.4383 0.0981979
9.76456 28.344 0.0770227
8.06905 28.1111 0.461365
10.0822 31.7121 2.53673
9.8239 31.5413 2.55435
8.95377 28.8223 0.66959
9.95397 28.2684 0.559557
9.24978 31.6786 0.577444
10.3104 29.5108 0.0738203
9.81687 27.8009 0.369407
9.14531 31.3879 0.265448
8.89149 31.5156 0.179293
8.03812 28.0708 0.534626
9.61309 32.1461 2.60237
9.58689 31.7926 2.83427
10.0528 26.9132 0.788997
8.91145 28.8228 0.738309
9.16964 28.9275 0.828163
9.24713 31.4794 0.306968
10.0824 29.7642 -0.0509192
9.70929 29.5993 0.0714869
10.7305 30.6166 -0.143573
10.2469 30.3846 -0.285806
9.65137 31.8554 2.63114
10.3814 27.2132 0.889261
8.81701 28.7603 1.31295
9.93052 26.7487 0.768582
9.82281 28.0336 0.769241
9.915 28.1872 0.704269
10.6198 30.6842 -0.162096
9.09383 31.6253 0.190623
9.09148 31.5683 0.173721
10.1939 30.5747 -0.10027
9.09752 28.2577 0.106591
8.78844 28.7478 1.11105
8.64221 28.7775 0.925143
8.75262 28.7553 1.00925
8.72189 27.5377 0.632516
9.09722 31.5195 0.527014
9.04647 31.4271 0.389308
9.08586 31.5191 0.31094
10.1371 26.5987 0.812889
9.77335 27.5964 0.653608
9.78144 27.5353 0.447161
9.80299 27.3938 0.688215
8.10867 28.0291 0.553865
9.26874 31.3387 0.363921
10.3621 28.2827 0.271097
10.0895 30.088 -0.135592
8.9657 28.8736 1.76119
9.20716 31.5205 0.5313
8.89368 28.8092 1.11864
9.82652 27.2647 0.421887
9.19699 31.7488 0.567707
9.16445 31.3596 0.417535
9.84567 27.0147 0.60935
9.69661 30.8483 0.0151479
10.1068 30.2525 -0.257552
9.22903 29.358 0.0832876
9.07499 29.2916 0.0804939
9.25898 28.3167 0.16911
11.0432 28.8154 1.70414
8.86185 28.8072 1.31335
8.89602 28.764 0.805351
9.19707 28.0194 0.100876
9.41319 28.8821 0.167346
9.81064 27.2284 0.504325
9.82803 27.7938 0.116538
8.71928 27.6148 0.623372
9.75514 29.9045 -0.0798842
9.52788 29.6883 -0.00591844
9.19301 29.2293 0.093707
9.71563 27.7392 0.31785
9.2824 30.8936 0.0531112
9.91749 30.6987 -0.139532
9.20458 31.6295 2.57117
9.8722 31.935 2.70647
10.222 27.3908 0.876235
9.42378 31.4943 0.545874
9.81127 31.5821 0.189831
9.40143 31.4064 0.466669
9.33912 31.4314 0.448246
9.09947 31.4384 0.329416
9.32449 29.4383 0.0740411
9.67431 27.8445 0.111208
10.1515 30.2107 -0.222703
9.63247 30.8839 -0.00586589
8.12727 28.1335 0.463252
10.0845 31.8958 0.395185
10.0179 27.7039 0.773753
9.46272 28.0167 0.504437
9.84653 26.9676 0.604453
9.51274 29.2623 0.06983
9.09101 29.0114 0.425046
8.1957 28.1192 0.563397
10.026 28.197 0.247878
9.79422 28.0799 0.127826
9.28298 28.7814 0.210217
9.30999 31.4835 0.188384
10.2261 29.8769 0.0501959
9.80003 27.4996 0.616891
10.1187 31.8586 0.416692
9.3321 31.3143 0.40274
9.37335 29.153 0.140537
9.8436 29.4723 0.0536101
9.15832 31.5194 0.535474
10.24 31.8618 0.298676
11.3049 28.1701 0.21073
10.7717 31.0797 0.11475
10.4159 28.2408 0.148693
9.72781 31.0989 0.0447472
8.2433 28.0965 0.595232
9.55818 29.4309 0.0674999
8.21777 28.1304 0.475491
9.31162 28.2492 0.0960027
9.14836 29.3443 0.0571936
8.89222 28.092 0.214129
8.89441 28.822 1.50903
10.4642 29.6343 0.134125
10.0991 28.1175 0.291199
9.19663 31.3522 0.105692
9.85569 27.109 0.520609
10.1066 27.1878 0.814032
8.87855 27.6043 0.598674
10.5671 31.6104 0.113788
10.985 29.014 0.0790864
9.87605 28.0625 0.474458
9.81783 27.3452 0.541148
10.6043 29.7815 0.0546543
9.18765 31.4555 0.354755
9.5209 28.9672 0.164065
8.32257 28.0096 0.608449
9.71232 30.9169 0.0246124
9.63448 29.5358 0.0432916
9.41539 30.5955 -0.0256326
9.1688 31.5005 0.128293
9.16154 31.0881 0.0771921
10.5873 31.668 2.62477
9.1605 30.803 0.0557078
11.0272 30.6492 -0.16628
9.46927 31.355 0.32902
9.28125 28.4465 0.116654
10.2238 27.7672 0.533607
10.0035 26.8741 0.656857
10.89 29.8704 0.100044
9.79396 28.0646 0.42457
10.3855 28.0189 0.303916
9.84976 26.927 0.527789
8.96347 28.9043 0.242617
9.85531 27.9047 0.708247
10.2496 26.961 0.867958
10.366 28.0791 0.49882
9.83093 27.2097 0.720491
9.62976 29.1876 0.116253
10.3444 31.8 0.289873
9.23679 31.3266 0.429075
10.0191 30.2722 -0.322951
9.61111 28.1387 0.100376
9.44336 31.0252 0.0662002
10.3283 30.8228 -0.0338219
9.5115 29.6392 0.0618211
10.4244 30.5733 -0.255901
9.28141 29.2753 0.0743502
9.10358 28.4013 0.115839
9.85396 27.3525 0.481739
9.27715 31.3186 0.426984
11.2058 29.6992 0.0825965
10.5132 29.8072 -0.0165419
10.4082 29.6128 0.0338326
9.50925 31.3759 0.141151
10.373 30.9218 0.00183346
10.8731 30.5315 -0.214023
9.58621 29.6125 -0.0443186
9.85296 27.2499 0.416218
10.3008 31.8876 0.222236
9.9911 31.6207 0.117779
9.69877 27.6176 0.366997
9.94542 27.5927 0.181981
10.0365 30.8242 -0.0163384
10.1008 27.115 0.818482
10.0879 27.472 0.784187
9.79915 27.5841 0.652195
10.9573 30.2002 -0.0377447
9.79636 27.319 0.580706
9.8333 27.0835 0.461968
10.6387 31.6832 0.360359
10.37 30.9807 -0.00807609
10.1945 28.5031 0.0835999
9.81167 27.5936 0.447082
9.88034 27.2946 0.360291
8.91772 28.805 1.32742
11.6003 28.9249 0.605557
8.71589 28.8459 0.81342
11.0601 28.312 0.276256
10.1404 27.2851 0.835737
10.151 28.2922 0.603086
10.9771 30.3172 -0.0964893
9.84815 27.207 0.498222
9.90181 28.1297 0.147404
9.8293 27.6923 0.293151
9.76651 27.641 0.163916
10.8714 28.7393 0.449902
8.95693 28.805 1.10124
10.5819 29.427 0.204834
11.6274 28.6891 2.63243
8.95502 28.9006 1.56862
10.4999 28.235 0.268364
11.6502 28.654 2.76801
9.01414 28.7929 1.25886
9.15724 29.0115 0.405864
11.1883 28.7222 2.88594
8.9421 28.8738 1.74978
9.02226 28.8899 1.6619
9.18911 28.7005 1.36883
9.02774 28.9211 0.879592
10.9154 29.9703 0.139055
9.89635 28.3456 0.754749
10.1527 26.5181 0.785481
9.08085 27.9068 0.240088
9.61768 27.5831 0.376763
8.7213 27.6238 0.62635
9.00538 28.7993 0.328995
9.48145 28.2631 0.0892896
9.7044 27.9733 0.249854
8.68922 28.8326 1.70028
9.97298 28.5842 2.44947
9.08145 28.7598 0.933802
9.75724 27.6779 0.367171
9.84149 28.2955 0.577545
9.61049 27.1855 0.647151
9.69374 28.2371 0.153912
8.31688 28.0912 0.63756
10.9361 28.6666 0.355333
8.9452 28.8154 0.735626
10.4835 25.4914 0.48393
10.4973 27.4288 0.86937
10.3817 27.3036 0.870935
8.70363 28.1448 0.432006
11.6858 29.0348 0.38824
8.87756 26.9823 0.618829
8.56181 27.4261 0.671356
8.55171 27.7975 0.57859
9.75464 28.533 0.11661
9.62902 28.4392 0.104723
9.77621 27.616 0.462917
9.61233 28.0153 0.117934
8.34162 27.6689 0.602667
9.86466 27.9522 0.131824
8.23893 27.9939 0.573272
9.12254 28.8996 1.01726
9.27851 28.8973 0.808786
11.7538 28.7174 0.20008
9.88419 25.7314 0.594534
9.82932 27.6274 0.636056
8.88926 26.8616 0.634315
11.9386 28.7826 0.669351
9.2089 28.0139 0.0981879
10.2674 26.7025 0.871882
8.87512 28.0762 0.382058
8.40089 27.7112 0.613109
8.25867 28.0734 0.543065
9.56038 28.3351 0.524955
8.40858 27.5106 0.606426
8.46773 28.1372 0.400932
8.18051 27.7756 0.556975
8.12114 27.6996 0.537543
8.05951 27.8701 0.547139
8.08458 27.7559 0.528236
8.17771 27.8373 0.511804
8.22777 27.7037 0.585125
9.91096 28.1687 0.714355
9.90257 28.0041 0.754262
9.93257 26.8694 0.516965
9.09569 28.8008 0.765026
9.82418 27.7954 0.370403
9.79646 27.1092 0.470251
8.45679 26.8969 0.635165
9.85246 28.2808 0.114363
8.2204 27.4283 0.588282
8.17904 27.6719 0.564397
8.54221 28.1358 0.569826
8.08838 27.534 0.571834
8.29624 28.0608 0.451056
8.23433 28.0643 0.467616
8.11417 27.6394 0.501772
10.3133 26.162 0.536089
8.96181 28.8113 1.2865
8.92661 28.8147 0.823742
9.04494 28.6988 0.896309
8.35153 26.831 0.616041
8.17196 27.0453 0.617327
8.29195 27.75 0.57872
7.98857 27.5342 0.527766
8.07507 27.2974 0.540956
9.82713 27.23 0.590136
8.64836 25.5226 0.680842
9.66472 27.4794 0.70909
9.89338 28.2311 0.573072
8.11702 27.0924 0.561619
8.54539 27.1947 0.631012
8.16049 26.8603 0.585546
8.0729 27.6411 0.511036
10.0831 25.2636 0.595613
9.63334 27.6583 0.228293
7.96067 27.0956 0.431271
8.22075 27.5392 0.56693
8.16549 27.489 0.576087
8.07759 27.0189 0.525567
8.06082 27.1739 0.538549
7.96647 27.3917 0.530049
7.9997 27.7853 0.48054
7.98785 27.7202 0.476785
7.98882 27.645 0.466729
7.94711 27.4421 0.503698
7.95606 27.4088 0.453282
7.96083 27.5153 0.441788
8.05587 27.861 0.467278
9.9038 27.7315 0.665835
9.75363 27.4059 0.35229
8.84565 27.3157 0.624958
8.50511 27.5818 0.647992
9.86976 27.587 0.132303
8.66622 24.9318 0.679351
8.40945 25.3907 0.626158
8.13087 27.9665 0.438048
8.07588 27.9292 0.445728
7.98819 27.717 0.441145
9.12141 25.2411 3.10846
10.1896 27.416 0.776842
8.53006 27.6571 0.619309
8.34618 24.3859 0.613778
8.08498 25.4961 0.566863
9.93889 27.298 0.464884
8.70016 27.8191 0.634966
8.07882 26.6114 0.387114
8.25273 26.8219 0.616963
8.00526 25.9263 0.251092
7.97587 25.6591 0.404834
7.94659 27.3598 0.325673
9.82266 27.8777 0.423246
8.61605 26.9045 0.621132
8.81716 26.2261 0.651693
8.24243 25.5728 0.646424
8.04727 25.2606 0.229383
8.65528 27.7836 0.61049
8.3371 27.4438 0.604365
8.09908 27.547 0.544788
7.87767 25.4459 0.161474
7.94959 25.6863 0.118397
7.85564 25.9783 0.0864338
8.61264 26.3397 0.702688
9.76058 27.5818 0.351547
10.2119 25.2488 0.818495
8.17762 27.2352 0.548766
8.18852 28.0993 0.523887
7.74999 25.738 0.133355
9.86444 27.8876 0.288943
8.2909 27.7644 0.531019
7.94893 27.2408 0.413601
8.83388 28.0417 0.415341
8.03973 28.1221 0.566035
8.02427 26.1122 0.123372
7.93759 27.4764 0.373685
8.88521 25.3135 0.639434
7.94261 25.4808 0.500779
9.94101 27.743 0.448949
10.1758 27.2636 0.834532
9.93498 25.8449 0.462214
8.37882 25.328 0.706524
8.73757 27.6121 0.622504
8.10353 26.4111 0.575693
8.01512 27.8944 0.452697
8.28332 28.0966 0.614971
7.31547 26.1455 0.105956
7.51591 25.228 0.0709574
7.42899 26.0094 0.11476
7.41537 26.1312 0.108656
10.2736 26.8313 0.788091
9.72517 27.1015 0.632307
8.04847 24.9868 0.634004
7.5358 25.0792 0.134253
9.81911 27.5126 0.441088
7.29219 25.8221 0.101123
7.05264 25.3001 0.141103
8.0055 27.8442 0.482096
7.08836 25.7551 0.110944
7.99418 27.1285 0.106342
7.69408 27.0297 0.131561
7.5026 26.8568 0.119112
7.2246 26.1584 0.116122
9.79323 26.6472 0.806236
6.90852 25.5542 0.721436
6.91638 26.8239 0.742665
9.69433 27.2474 0.688338
8.64497 27.0677 0.656251
8.06288 26.8444 0.563711
7.61716 25.3442 0.12446
8.25346 27.2486 0.608105
7.73117 25.4849 0.162562
7.42292 25.3219 0.106275
7.61673 25.827 0.0899789
6.954 25.8934 0.315265
7.11968 25.4562 0.115567
8.13785 28.1043 0.577237
7.04791 26.4695 0.133196
7.28017 26.7903 0.124593
6.92082 27.2935 0.683414
6.56873 25.2175 0.811969
6.69978 26.1283 0.793332
9.86937 27.1862 0.718631
8.49666 26.8289 0.621472
9.79807 27.2418 0.508438
8.73862 27.4893 0.598099
8.19347 27.579 0.578581
7.66248 25.8494 0.0933088
8.6962 27.9367 0.590347
8.33839 27.9999 0.6091
7.99312 27.095 0.501248
7.9542 27.296 0.331845
6.98204 27.6301 0.611983
6.96761 27.5682 0.553585
10.1104 26.6178 0.817478
6.46428 25.954 0.819776
10.7619 25.9509 0.321749
6.75792 27.149 0.738912
8.88285 27.5168 0.63581
8.43441 27.4428 0.622124
8.22987 27.7381 0.569486
7.08495 26.0756 0.100277
6.65719 26.3106 0.795273
6.6781 26.8906 0.795216
8.40652 27.2557 0.605108
8.0789 24.8628 0.519104
6.83722 27.1224 0.741048
6.98552 26.1169 0.153343
6.40445 24.7722 0.843788
6.54137 25.9247 0.818986
6.87184 25.8787 0.431348
6.80491 27.1283 0.721823
8.19013 27.5392 0.530749
8.17055 27.7903 0.564647
6.90765 26.8863 0.58031
6.94326 27.6575 0.611893
8.02345 27.7702 0.525382
6.84548 26.4756 0.145678
6.87008 27.0034 0.421054
7.45615 25.7932 0.093048
6.8363 25.3627 0.590693
6.93416 27.1696 0.678295
8.28401 27.754 0.594249
8.24202 27.4645 0.594286
7.21431 26.4479 0.104637
8.24737 26.8321 0.620352
6.01584 25.0837 0.791269
8.90419 26.8445 0.633477
8.1689 26.846 0.584082
6.80202 24.4386 0.792923
6.8142 27.4137 0.71252
6.91062 27.4081 0.666113
8.22582 27.7098 0.584556
8.17212 27.4369 0.59567
6.86807 26.6645 0.158837
8.40329 27.6693 0.567421
8.85485 25.3813 0.643765
6.55217 24.4966 0.824227
6.48214 26.2608 0.805987
8.37854 26.7808 0.611291
6.69512 26.7741 0.733847
9.07049 25.7824 0.592335
8.19715 26.9966 0.611913
7.81211 24.1382 0.19268
8.27776 27.5688 0.6172
8.30707 27.4382 0.608817
8.26183 26.9893 0.525823
7.393 25.5504 0.104709
6.9402 26.0013 0.201733
6.62356 27.0384 0.787206
6.79918 26.6945 0.139396
10.4107 24.9304 0.809236
9.93268 25.2833 0.677729
8.32613 27.2427 0.621395
8.12318 27.37 0.572865
8.5118 27.3886 0.6199
6.89454 25.3705 0.40807
7.15562 26.0448 0.107889
6.91321 27.2627 0.677005
8.64419 26.815 0.642448
6.55467 26.6159 0.805005
6.31664 26.84 0.797945
8.57349 27.224 0.638348
8.4044 26.9918 0.596755
8.33224 27.4436 0.603102
8.01813 25.3672 0.133028
6.94012 27.2902 0.661937
6.81116 26.8231 0.770246
8.1266 27.0103 0.580225
7.9813 27.5218 0.588094
6.70238 27.5059 0.734555
6.77679 26.2929 0.140253
7.1713 26.2025 0.104963
